# .PCD v0.7 - Point Cloud Data file format
VERSION 0.7
FIELDS x y z
SIZE 4 4 4
TYPE F F F
COUNT 1 1 1
WIDTH 1542
HEIGHT 1
VIEWPOINT 0 0 0 1 0 0 0
POINTS 1542
DATA ascii
3.2350237 -1.1445503 1.125875
3.2350237 -1.1445503 1.2255
3.2350237 -1.1445503 1.325125
3.2350237 -1.1445503 1.42475
3.2350237 -1.1445503 1.524375
3.2350237 -1.1445503 1.624
3.2350237 -1.1445503 1.7236249
3.2350237 -1.1445503 1.8232499
3.2350237 -1.1445503 1.9228749
3.2350237 -1.1445503 2.0225
3.2350237 -1.1445503 2.1221249
3.2350237 -1.1445503 2.22175
3.2350237 -1.1445503 2.3213749
3.2350237 -1.1445503 2.421
3.2350237 -1.1445503 2.5206249
3.2350237 -1.1445503 2.62025
3.2350237 -1.1445503 2.7198749
3.2350237 -1.1445503 2.8195
3.2350237 -1.1445503 2.9191248
3.2350237 -1.1445503 3.01875
3.2350237 -1.2440767 0.029999999
3.2350237 -1.2440767 3.01875
3.2350237 -1.3436022 0.029999999
3.2350237 -1.3436022 3.01875
3.2350237 -1.4431286 0.029999999
3.2350237 -1.4431286 3.01875
3.2350237 -1.542654 0.029999999
3.2350237 -1.542654 3.01875
3.2350237 -1.6421804 0.029999999
3.2350237 -1.6421804 3.01875
3.2350237 -1.7417068 0.029999999
3.2350237 -1.7417068 3.01875
3.2350237 -1.8412323 0.029999999
3.2350237 -1.8412323 3.01875
3.2350237 -1.9407587 0.029999999
3.2350237 -1.9407587 3.01875
3.2350237 -2.0402851 0.029999999
3.2350237 -2.0402851 0.12962499
3.2350237 -2.0402851 0.22925
3.2350237 -2.0402851 0.32887501
3.2350237 -2.0402851 0.4285
3.2350237 -2.0402851 0.52812499
3.2350237 -2.0402851 0.62774998
3.2350237 -2.0402851 0.72737497
3.2350237 -2.0402851 0.82699996
3.2350237 -2.0402851 0.92662495
3.2350237 -2.0402851 1.02625
3.2350237 -2.0402851 1.125875
3.2350237 -2.0402851 1.2255
3.2350237 -2.0402851 1.325125
3.2350237 -2.0402851 1.42475
3.2350237 -2.0402851 1.524375
3.2350237 -2.0402851 1.624
3.2350237 -2.0402851 1.7236249
3.2350237 -2.0402851 1.8232499
3.2350237 -2.0402851 1.9228749
3.2350237 -2.0402851 2.0225
3.2350237 -2.0402851 2.1221249
3.2350237 -2.0402851 2.22175
3.2350237 -2.0402851 2.3213749
3.2350237 -2.0402851 2.421
3.2350237 -2.0402851 2.5206249
3.2350237 -2.0402851 2.62025
3.2350237 -2.0402851 2.7198749
3.2350237 -2.0402851 2.8195
3.2350237 -2.0402851 2.9191248
3.2350237 -2.1398106 0.029999999
3.2350237 -2.239337 0.029999999
3.2350237 -2.3388634 0.029999999
3.2350237 -2.4383888 0.029999999
3.2350237 -2.5379152 0.029999999
3.2350237 -2.6374416 0.029999999
3.2350237 -2.7369671 0.029999999
3.2350237 -2.8364935 0.029999999
3.2350237 -2.9360199 0.029999999
3.2350237 -3.0355453 0.029999999
3.2350237 -3.1350718 0.029999999
3.2350237 -3.2345972 0.029999999
3.2350237 -3.3341236 0.029999999
3.2350237 -3.43365 0.029999999
3.2350237 -3.5331755 0.029999999
3.2350237 -3.6327019 0.029999999
3.2350237 -3.7322283 0.029999999
3.2350237 -3.8317537 0.029999999
3.2350237 -3.8317537 0.12962499
3.2350237 -3.8317537 0.22925
3.2350237 -3.8317537 0.32887501
3.2350237 -3.8317537 0.4285
3.2350237 -3.8317537 0.52812499
3.2350237 -3.8317537 0.62774998
3.2350237 -3.8317537 0.72737497
3.2350237 -3.8317537 0.82699996
3.2350237 -3.8317537 0.92662495
3.2350237 -3.8317537 1.02625
3.2350237 -3.8317537 1.125875
3.2350237 -3.8317537 1.2255
3.2350237 -3.8317537 1.325125
3.2350237 -3.8317537 1.42475
3.2350237 -3.8317537 1.524375
3.2350237 -3.8317537 1.624
3.2350237 -3.8317537 1.7236249
3.2350237 -3.8317537 1.8232499
3.2350237 -3.8317537 1.9228749
3.2350237 -3.8317537 2.0225
3.2350237 -3.8317537 2.1221249
3.2350237 -3.8317537 2.22175
3.2350237 -3.8317537 2.3213749
3.2350237 -3.8317537 2.421
3.2350237 -3.8317537 2.5206249
3.2350237 -3.9312801 0.029999999
3.2350237 -3.9312801 0.12962499
3.2350237 -3.9312801 0.22925
3.2350237 -3.9312801 0.32887501
3.2350237 -3.9312801 0.4285
3.2350237 -3.9312801 0.52812499
3.2350237 -3.9312801 0.62774998
3.2350237 -3.9312801 0.72737497
3.2350237 -3.9312801 0.82699996
3.2350237 -3.9312801 0.92662495
3.2350237 -3.9312801 1.02625
3.2350237 -3.9312801 1.125875
3.2350237 -3.9312801 1.2255
3.2350237 -3.9312801 1.325125
3.2350237 -3.9312801 1.42475
3.2350237 -3.9312801 1.524375
3.2350237 -3.9312801 1.624
3.2350237 -3.9312801 1.7236249
3.2350237 -3.9312801 1.8232499
3.2350237 -3.9312801 1.9228749
3.2350237 -3.9312801 2.0225
3.2350237 -3.9312801 2.1221249
3.2350237 -3.9312801 2.22175
3.2350237 -3.9312801 2.3213749
3.2350237 -3.9312801 2.421
3.2350237 -3.9312801 2.5206249
3.2350237 -4.0308065 0.029999999
3.2350237 -4.130332 0.029999999
3.2350237 -4.2298584 0.029999999
3.2350237 -4.3293848 0.029999999
3.2350237 -4.4289103 0.029999999
3.2350237 -4.5284367 0.029999999
3.2350237 -4.6279631 0.029999999
3.2350237 -4.7274885 0.029999999
3.2350237 -4.8270149 0.029999999
3.2350237 -4.9265413 0.029999999
3.2350237 -5.0260668 0.029999999
3.2350237 -5.1255932 0.029999999
3.2350237 -5.2251186 0.029999999
3.2350237 -5.324645 0.029999999
3.2350237 -5.4241714 0.029999999
3.2350237 -5.5236969 0.029999999
3.2350237 -5.6232243 0.029999999
3.2350237 -5.7227497 0.029999999
3.2350237 -5.8222752 0.029999999
3.2350237 -5.9218006 0.029999999
3.2350237 -6.021328 0.029999999
3.2350237 -6.1208534 0.029999999
3.2350237 -6.2203789 0.029999999
3.2350237 -6.3199062 0.029999999
3.2350237 -6.4194317 0.029999999
3.2350237 -6.4194317 0.12962499
3.2350237 -6.4194317 0.22925
3.2350237 -6.4194317 0.32887501
3.2350237 -6.4194317 0.4285
3.2350237 -6.4194317 1.325125
3.2350237 -6.4194317 1.42475
3.2350237 -6.4194317 1.524375
3.2350237 -6.4194317 1.624
3.2350237 -6.4194317 1.7236249
3.2350237 -6.4194317 1.8232499
3.2350237 -6.4194317 1.9228749
3.2350237 -6.4194317 2.0225
3.2350237 -6.4194317 2.1221249
3.2350237 -6.4194317 2.22175
3.2350237 -6.4194317 2.3213749
3.2350237 -6.4194317 2.421
3.2350237 -6.5189571 0.029999999
3.2350237 -6.5189571 0.52812499
3.2350237 -6.5189571 1.325125
3.2350237 -6.5189571 2.5206249
3.2350237 -6.6184845 0.029999999
3.2350237 -6.6184845 0.12962499
3.2350237 -6.6184845 0.22925
3.2350237 -6.6184845 0.32887501
3.2350237 -6.6184845 0.4285
3.2350237 -6.6184845 1.325125
3.2350237 -6.6184845 1.42475
3.2350237 -6.6184845 1.524375
3.2350237 -6.6184845 1.624
3.2350237 -6.6184845 1.7236249
3.2350237 -6.6184845 1.8232499
3.2350237 -6.6184845 1.9228749
3.2350237 -6.6184845 2.0225
3.2350237 -6.6184845 2.1221249
3.2350237 -6.6184845 2.22175
3.2350237 -6.6184845 2.3213749
3.2350237 -6.6184845 2.421
3.2350237 -6.7180099 0.029999999
3.2350237 -6.8175354 0.029999999
3.2350237 -6.9170628 0.029999999
3.2350237 -7.0165882 0.029999999
3.2350237 -7.1161137 0.029999999
3.2350237 -7.215641 0.029999999
3.2350237 -7.3151665 0.029999999
3.2350237 -7.4146919 0.029999999
3.2350237 -7.5142193 0.029999999
3.2350237 -7.6137447 0.029999999
3.2350237 -7.7132702 0.029999999
3.2350237 -7.8127975 0.029999999
3.2350237 -7.912323 0.029999999
3.2350237 -8.0118484 0.029999999
3.2350237 -8.1113758 0.029999999
3.2350237 -8.2109013 0.029999999
3.2350237 -8.3104267 0.029999999
3.2350237 -8.4099541 0.029999999
3.2350237 -8.5094795 0.029999999
3.2350237 -8.609005 0.029999999
3.2350237 -8.7085323 0.029999999
3.2350237 -8.8080578 0.029999999
3.2350237 -8.9075832 0.029999999
3.2350237 -9.0071106 0.029999999
3.2350237 -9.106636 0.029999999
3.2350237 -9.2061615 0.029999999
3.2350237 -9.3056889 0.029999999
3.2350237 -9.4052143 0.029999999
3.2350237 -9.5047398 0.029999999
3.2350237 -9.6042652 0.029999999
3.2350237 -9.7037926 0.029999999
3.2350237 -9.803318 0.029999999
3.2350237 -9.9028435 0.029999999
3.2350237 -10.002371 0.029999999
3.2350237 -10.101896 0.029999999
3.2350237 -10.201422 0.029999999
3.2350237 -10.300949 0.029999999
3.2350237 -10.400475 0.029999999
3.3345625 10.5 0.029999999
3.3345625 10.400474 0.029999999
3.3345625 10.300948 0.029999999
3.3345625 10.201422 0.029999999
3.3345625 10.101895 0.029999999
3.3345625 10.00237 0.029999999
3.3345625 9.9028435 0.029999999
3.3345625 9.8033171 0.029999999
3.3345625 9.7037916 0.029999999
3.3345625 9.6042652 0.029999999
3.3345625 9.5047398 0.029999999
3.3345625 9.4052134 0.029999999
3.3345625 9.305687 0.029999999
3.3345625 9.2061615 0.029999999
3.3345625 9.1066351 0.029999999
3.3345625 9.0071087 0.029999999
3.3345625 8.9075832 0.029999999
3.3345625 8.8080568 0.029999999
3.3345625 8.7085304 0.029999999
3.3345625 8.609005 0.029999999
3.3345625 8.5094786 0.029999999
3.3345625 8.4099522 0.029999999
3.3345625 8.3104267 0.029999999
3.3345625 8.2109003 0.029999999
3.3345625 8.1113739 0.029999999
3.3345625 8.0118484 0.029999999
3.3345625 7.912322 0.029999999
3.3345625 7.8127961 0.029999999
3.3345625 7.7132702 0.029999999
3.3345625 7.6137438 0.029999999
3.3345625 7.5142179 0.029999999
3.3345625 7.4146919 0.029999999
3.3345625 7.3151655 0.029999999
3.3345625 7.2156396 0.029999999
3.3345625 7.1161137 0.029999999
3.3345625 7.0165873 0.029999999
3.3345625 6.9170618 0.029999999
3.3345625 6.8175354 0.029999999
3.3345625 6.718009 0.029999999
3.3345625 6.6184835 0.029999999
3.3345625 6.5189571 0.029999999
3.3345625 6.4194312 0.029999999
3.3345625 6.3199053 0.029999999
3.3345625 6.2203789 0.029999999
3.3345625 6.1208529 0.029999999
3.3345625 6.021327 0.029999999
3.3345625 5.9218006 0.029999999
3.3345625 5.8222747 0.029999999
3.3345625 5.7227488 0.029999999
3.3345625 5.6232224 0.029999999
3.3345625 5.5236964 0.029999999
3.3345625 5.4241705 0.029999999
3.3345625 5.3246446 0.029999999
3.3345625 5.2251182 0.029999999
3.3345625 5.1255922 0.029999999
3.3345625 5.0260663 0.029999999
3.3345625 4.9265399 0.029999999
3.3345625 4.827014 0.029999999
3.3345625 4.727488 0.029999999
3.3345625 4.6279616 0.029999999
3.3345625 4.5284357 0.029999999
3.3345625 4.4289098 0.029999999
3.3345625 4.3293839 0.029999999
3.3345625 4.2298574 0.029999999
3.3345625 4.1303315 0.029999999
3.3345625 4.0308056 0.029999999
3.3345625 3.9312792 0.029999999
3.3345625 3.8317533 0.029999999
3.3345625 3.7322273 0.029999999
3.3345625 3.6327014 0.029999999
3.3345625 3.533175 0.029999999
3.3345625 3.533175 0.12962499
3.3345625 3.533175 0.22925
3.3345625 3.533175 0.32887501
3.3345625 3.533175 0.4285
3.3345625 3.533175 0.52812499
3.3345625 3.533175 1.325125
3.3345625 3.533175 1.42475
3.3345625 3.533175 1.524375
3.3345625 3.533175 1.624
3.3345625 3.533175 1.7236249
3.3345625 3.533175 1.8232499
3.3345625 3.533175 1.9228749
3.3345625 3.533175 2.0225
3.3345625 3.533175 2.1221249
3.3345625 3.533175 2.22175
3.3345625 3.533175 2.3213749
3.3345625 3.533175 2.421
3.3345625 3.533175 2.5206249
3.3345625 3.4336491 0.029999999
3.3345625 3.4336491 0.12962499
3.3345625 3.4336491 0.22925
3.3345625 3.4336491 0.32887501
3.3345625 3.4336491 0.4285
3.3345625 3.4336491 0.52812499
3.3345625 3.4336491 1.325125
3.3345625 3.4336491 1.42475
3.3345625 3.4336491 1.524375
3.3345625 3.4336491 1.624
3.3345625 3.4336491 1.7236249
3.3345625 3.4336491 1.8232499
3.3345625 3.4336491 1.9228749
3.3345625 3.4336491 2.0225
3.3345625 3.4336491 2.1221249
3.3345625 3.4336491 2.22175
3.3345625 3.4336491 2.3213749
3.3345625 3.4336491 2.421
3.3345625 3.4336491 2.5206249
3.3345625 3.3341231 0.029999999
3.3345625 3.2345967 0.029999999
3.3345625 3.1350708 0.029999999
3.3345625 3.0355449 0.029999999
3.3345625 2.9360185 0.029999999
3.3345625 2.8364925 0.029999999
3.3345625 2.7369666 0.029999999
3.3345625 2.6374407 0.029999999
3.3345625 2.5379143 0.029999999
3.3345625 2.4383879 0.029999999
3.3345625 2.3388624 0.029999999
3.3345625 2.239336 0.029999999
3.3345625 2.1398106 0.029999999
3.3345625 2.0402842 0.029999999
3.3345625 1.9407578 0.029999999
3.3345625 1.8412323 0.029999999
3.3345625 1.7417059 0.029999999
3.3345625 1.6421795 0.029999999
3.3345625 1.542654 0.029999999
3.3345625 1.4431276 0.029999999
3.3345625 1.3436012 0.029999999
3.3345625 1.2440758 0.029999999
3.3345625 1.1445494 0.029999999
3.3345625 1.045023 0.029999999
3.3345625 0.94549751 0.029999999
3.3345625 0.84597111 0.029999999
3.3345625 0.7464447 0.029999999
3.3345625 0.64691925 0.029999999
3.3345625 0.54739285 0.029999999
3.3345625 0.44786739 0.029999999
3.3345625 0.34834099 0.029999999
3.3345625 0.24881458 0.029999999
3.3345625 0.14928913 0.029999999
3.3345625 0.049762726 0.029999999
3.3345625 -0.04976368 0.029999999
3.3345625 -0.14928913 0.029999999
3.3345625 -0.14928913 0.12962499
3.3345625 -0.14928913 0.22925
3.3345625 -0.14928913 0.32887501
3.3345625 -0.14928913 0.4285
3.3345625 -0.14928913 0.52812499
3.3345625 -0.14928913 0.62774998
3.3345625 -0.14928913 0.72737497
3.3345625 -0.14928913 0.82699996
3.3345625 -0.14928913 0.92662495
3.3345625 -0.14928913 1.02625
3.3345625 -0.14928913 1.125875
3.3345625 -0.14928913 1.2255
3.3345625 -0.14928913 1.325125
3.3345625 -0.14928913 1.42475
3.3345625 -0.14928913 1.524375
3.3345625 -0.14928913 1.624
3.3345625 -0.14928913 1.7236249
3.3345625 -0.14928913 1.8232499
3.3345625 -0.14928913 1.9228749
3.3345625 -0.14928913 2.0225
3.3345625 -0.14928913 2.1221249
3.3345625 -0.14928913 2.22175
3.3345625 -0.14928913 2.3213749
3.3345625 -0.14928913 2.421
3.3345625 -0.14928913 2.5206249
3.3345625 -0.14928913 2.62025
3.3345625 -0.14928913 2.7198749
3.3345625 -0.14928913 2.8195
3.3345625 -0.14928913 2.9191248
3.3345625 -0.14928913 3.01875
3.3345625 -0.24881554 0.029999999
3.3345625 -0.24881554 3.01875
3.3345625 -0.34834194 0.029999999
3.3345625 -0.34834194 3.01875
3.3345625 -0.44786739 0.029999999
3.3345625 -0.44786739 3.01875
3.3345625 -0.5473938 0.029999999
3.3345625 -0.5473938 3.01875
3.3345625 -0.6469202 0.029999999
3.3345625 -0.6469202 3.01875
3.3345625 -0.74644566 0.029999999
3.3345625 -0.74644566 3.01875
3.3345625 -0.84597206 0.029999999
3.3345625 -0.84597206 3.01875
3.3345625 -0.94549847 0.029999999
3.3345625 -0.94549847 3.01875
3.3345625 -1.0450239 0.029999999
3.3345625 -1.0450239 0.12962499
3.3345625 -1.0450239 0.22925
3.3345625 -1.0450239 0.32887501
3.3345625 -1.0450239 0.4285
3.3345625 -1.0450239 0.52812499
3.3345625 -1.0450239 0.62774998
3.3345625 -1.0450239 0.72737497
3.3345625 -1.0450239 0.82699996
3.3345625 -1.0450239 0.92662495
3.3345625 -1.0450239 1.02625
3.3345625 -1.0450239 1.125875
3.3345625 -1.0450239 1.2255
3.3345625 -1.0450239 1.325125
3.3345625 -1.0450239 1.42475
3.3345625 -1.0450239 1.524375
3.3345625 -1.0450239 1.624
3.3345625 -1.0450239 1.7236249
3.3345625 -1.0450239 1.8232499
3.3345625 -1.0450239 1.9228749
3.3345625 -1.0450239 2.0225
3.3345625 -1.0450239 2.1221249
3.3345625 -1.0450239 2.22175
3.3345625 -1.0450239 2.3213749
3.3345625 -1.0450239 2.421
3.3345625 -1.0450239 2.5206249
3.3345625 -1.0450239 2.62025
3.3345625 -1.0450239 2.7198749
3.3345625 -1.0450239 2.8195
3.3345625 -1.0450239 2.9191248
3.3345625 -1.0450239 3.01875
3.3345625 -1.1445503 0.029999999
3.3345625 -1.1445503 0.12962499
3.3345625 -1.1445503 0.22925
3.3345625 -1.1445503 0.32887501
3.3345625 -1.1445503 0.4285
3.3345625 -1.1445503 0.52812499
3.3345625 -1.1445503 0.62774998
3.3345625 -1.1445503 0.72737497
3.3345625 -1.1445503 0.82699996
3.3345625 -1.1445503 0.92662495
3.3345625 -1.1445503 1.02625
3.3345625 -1.1445503 1.125875
3.3345625 -1.1445503 1.2255
3.3345625 -1.1445503 1.325125
3.3345625 -1.1445503 1.42475
3.3345625 -1.1445503 1.524375
3.3345625 -1.1445503 1.624
3.3345625 -1.1445503 1.7236249
3.3345625 -1.1445503 1.8232499
3.3345625 -1.1445503 1.9228749
3.3345625 -1.1445503 2.0225
3.3345625 -1.1445503 2.1221249
3.3345625 -1.1445503 2.22175
3.3345625 -1.1445503 2.3213749
3.3345625 -1.1445503 2.421
3.3345625 -1.1445503 2.5206249
3.3345625 -1.1445503 2.62025
3.3345625 -1.1445503 2.7198749
3.3345625 -1.1445503 2.8195
3.3345625 -1.1445503 2.9191248
3.3345625 -1.1445503 3.01875
3.3345625 -1.2440767 0.029999999
3.3345625 -1.2440767 3.01875
3.3345625 -1.3436022 0.029999999
3.3345625 -1.3436022 3.01875
3.3345625 -1.4431286 0.029999999
3.3345625 -1.4431286 3.01875
3.3345625 -1.542654 0.029999999
3.3345625 -1.542654 3.01875
3.3345625 -1.6421804 0.029999999
3.3345625 -1.6421804 3.01875
3.3345625 -1.7417068 0.029999999
3.3345625 -1.7417068 3.01875
3.3345625 -1.8412323 0.029999999
3.3345625 -1.8412323 3.01875
3.3345625 -1.9407587 0.029999999
3.3345625 -1.9407587 3.01875
3.3345625 -2.0402851 0.029999999
3.3345625 -2.0402851 0.12962499
3.3345625 -2.0402851 0.22925
3.3345625 -2.0402851 0.32887501
3.3345625 -2.0402851 0.4285
3.3345625 -2.0402851 0.52812499
3.3345625 -2.0402851 0.62774998
3.3345625 -2.0402851 0.72737497
3.3345625 -2.0402851 0.82699996
3.3345625 -2.0402851 0.92662495
3.3345625 -2.0402851 1.02625
3.3345625 -2.0402851 1.125875
3.3345625 -2.0402851 1.2255
3.3345625 -2.0402851 1.325125
3.3345625 -2.0402851 1.42475
3.3345625 -2.0402851 1.524375
3.3345625 -2.0402851 1.624
3.3345625 -2.0402851 1.7236249
3.3345625 -2.0402851 1.8232499
3.3345625 -2.0402851 1.9228749
3.3345625 -2.0402851 2.0225
3.3345625 -2.0402851 2.1221249
3.3345625 -2.0402851 2.22175
3.3345625 -2.0402851 2.3213749
3.3345625 -2.0402851 2.421
3.3345625 -2.0402851 2.5206249
3.3345625 -2.0402851 2.62025
3.3345625 -2.0402851 2.7198749
3.3345625 -2.0402851 2.8195
3.3345625 -2.0402851 2.9191248
3.3345625 -2.1398106 0.029999999
3.3345625 -2.239337 0.029999999
3.3345625 -2.3388634 0.029999999
3.3345625 -2.4383888 0.029999999
3.3345625 -2.5379152 0.029999999
3.3345625 -2.6374416 0.029999999
3.3345625 -2.7369671 0.029999999
3.3345625 -2.8364935 0.029999999
3.3345625 -2.9360199 0.029999999
3.3345625 -3.0355453 0.029999999
3.3345625 -3.1350718 0.029999999
3.3345625 -3.2345972 0.029999999
3.3345625 -3.3341236 0.029999999
3.3345625 -3.43365 0.029999999
3.3345625 -3.5331755 0.029999999
3.3345625 -3.6327019 0.029999999
3.3345625 -3.7322283 0.029999999
3.3345625 -3.8317537 0.029999999
3.3345625 -3.8317537 0.12962499
3.3345625 -3.8317537 0.22925
3.3345625 -3.8317537 0.32887501
3.3345625 -3.8317537 0.4285
3.3345625 -3.8317537 0.52812499
3.3345625 -3.8317537 0.62774998
3.3345625 -3.8317537 0.72737497
3.3345625 -3.8317537 0.82699996
3.3345625 -3.8317537 0.92662495
3.3345625 -3.8317537 1.02625
3.3345625 -3.8317537 1.125875
3.3345625 -3.8317537 1.2255
3.3345625 -3.8317537 1.325125
3.3345625 -3.8317537 1.42475
3.3345625 -3.8317537 1.524375
3.3345625 -3.8317537 1.624
3.3345625 -3.8317537 1.7236249
3.3345625 -3.8317537 1.8232499
3.3345625 -3.8317537 1.9228749
3.3345625 -3.8317537 2.0225
3.3345625 -3.8317537 2.1221249
3.3345625 -3.8317537 2.22175
3.3345625 -3.8317537 2.3213749
3.3345625 -3.8317537 2.421
3.3345625 -3.8317537 2.5206249
3.3345625 -3.9312801 0.029999999
3.3345625 -3.9312801 0.12962499
3.3345625 -3.9312801 0.22925
3.3345625 -3.9312801 0.32887501
3.3345625 -3.9312801 0.4285
3.3345625 -3.9312801 0.52812499
3.3345625 -3.9312801 0.62774998
3.3345625 -3.9312801 0.72737497
3.3345625 -3.9312801 0.82699996
3.3345625 -3.9312801 0.92662495
3.3345625 -3.9312801 1.02625
3.3345625 -3.9312801 1.125875
3.3345625 -3.9312801 1.2255
3.3345625 -3.9312801 1.325125
3.3345625 -3.9312801 1.42475
3.3345625 -3.9312801 1.524375
3.3345625 -3.9312801 1.624
3.3345625 -3.9312801 1.7236249
3.3345625 -3.9312801 1.8232499
3.3345625 -3.9312801 1.9228749
3.3345625 -3.9312801 2.0225
3.3345625 -3.9312801 2.1221249
3.3345625 -3.9312801 2.22175
3.3345625 -3.9312801 2.3213749
3.3345625 -3.9312801 2.421
3.3345625 -3.9312801 2.5206249
3.3345625 -4.0308065 0.029999999
3.3345625 -4.130332 0.029999999
3.3345625 -4.2298584 0.029999999
3.3345625 -4.3293848 0.029999999
3.3345625 -4.4289103 0.029999999
3.3345625 -4.5284367 0.029999999
3.3345625 -4.6279631 0.029999999
3.3345625 -4.7274885 0.029999999
3.3345625 -4.8270149 0.029999999
3.3345625 -4.9265413 0.029999999
3.3345625 -5.0260668 0.029999999
3.3345625 -5.1255932 0.029999999
3.3345625 -5.2251186 0.029999999
3.3345625 -5.324645 0.029999999
3.3345625 -5.4241714 0.029999999
3.3345625 -5.5236969 0.029999999
3.3345625 -5.6232243 0.029999999
3.3345625 -5.7227497 0.029999999
3.3345625 -5.8222752 0.029999999
3.3345625 -5.9218006 0.029999999
3.3345625 -6.021328 0.029999999
3.3345625 -6.1208534 0.029999999
3.3345625 -6.2203789 0.029999999
3.3345625 -6.3199062 0.029999999
3.3345625 -6.4194317 0.029999999
3.3345625 -6.4194317 0.12962499
3.3345625 -6.4194317 0.22925
3.3345625 -6.4194317 0.32887501
3.3345625 -6.4194317 0.4285
3.3345625 -6.4194317 1.325125
3.3345625 -6.4194317 1.42475
3.3345625 -6.4194317 1.524375
3.3345625 -6.4194317 1.624
3.3345625 -6.4194317 1.7236249
3.3345625 -6.4194317 1.8232499
3.3345625 -6.4194317 1.9228749
3.3345625 -6.4194317 2.0225
3.3345625 -6.4194317 2.1221249
3.3345625 -6.4194317 2.22175
3.3345625 -6.4194317 2.3213749
3.3345625 -6.4194317 2.421
3.3345625 -6.5189571 0.029999999
3.3345625 -6.5189571 0.52812499
3.3345625 -6.5189571 1.325125
3.3345625 -6.5189571 2.5206249
3.3345625 -6.6184845 0.029999999
3.3345625 -6.6184845 0.12962499
3.3345625 -6.6184845 0.22925
3.3345625 -6.6184845 0.32887501
3.3345625 -6.6184845 0.4285
3.3345625 -6.6184845 1.325125
3.3345625 -6.6184845 1.42475
3.3345625 -6.6184845 1.524375
3.3345625 -6.6184845 1.624
3.3345625 -6.6184845 1.7236249
3.3345625 -6.6184845 1.8232499
3.3345625 -6.6184845 1.9228749
3.3345625 -6.6184845 2.0225
3.3345625 -6.6184845 2.1221249
3.3345625 -6.6184845 2.22175
3.3345625 -6.6184845 2.3213749
3.3345625 -6.6184845 2.421
3.3345625 -6.7180099 0.029999999
3.3345625 -6.8175354 0.029999999
3.3345625 -6.9170628 0.029999999
3.3345625 -7.0165882 0.029999999
3.3345625 -7.1161137 0.029999999
3.3345625 -7.215641 0.029999999
3.3345625 -7.3151665 0.029999999
3.3345625 -7.4146919 0.029999999
3.3345625 -7.5142193 0.029999999
3.3345625 -7.6137447 0.029999999
3.3345625 -7.7132702 0.029999999
3.3345625 -7.8127975 0.029999999
3.3345625 -7.912323 0.029999999
3.3345625 -8.0118484 0.029999999
3.3345625 -8.1113758 0.029999999
3.3345625 -8.2109013 0.029999999
3.3345625 -8.3104267 0.029999999
3.3345625 -8.4099541 0.029999999
3.3345625 -8.5094795 0.029999999
3.3345625 -8.609005 0.029999999
3.3345625 -8.7085323 0.029999999
3.3345625 -8.8080578 0.029999999
3.3345625 -8.9075832 0.029999999
3.3345625 -9.0071106 0.029999999
3.3345625 -9.106636 0.029999999
3.3345625 -9.2061615 0.029999999
3.3345625 -9.3056889 0.029999999
3.3345625 -9.4052143 0.029999999
3.3345625 -9.5047398 0.029999999
3.3345625 -9.6042652 0.029999999
3.3345625 -9.7037926 0.029999999
3.3345625 -9.803318 0.029999999
3.3345625 -9.9028435 0.029999999
3.3345625 -10.002371 0.029999999
3.3345625 -10.101896 0.029999999
3.3345625 -10.201422 0.029999999
3.3345625 -10.300949 0.029999999
3.3345625 -10.400475 0.029999999
3.4341023 10.5 0.029999999
3.4341023 10.400474 0.029999999
3.4341023 10.300948 0.029999999
3.4341023 10.201422 0.029999999
3.4341023 10.101895 0.029999999
3.4341023 10.00237 0.029999999
3.4341023 9.9028435 0.029999999
3.4341023 9.8033171 0.029999999
3.4341023 9.7037916 0.029999999
3.4341023 9.6042652 0.029999999
3.4341023 9.5047398 0.029999999
3.4341023 9.4052134 0.029999999
3.4341023 9.305687 0.029999999
3.4341023 9.2061615 0.029999999
3.4341023 9.1066351 0.029999999
3.4341023 9.0071087 0.029999999
3.4341023 8.9075832 0.029999999
3.4341023 8.8080568 0.029999999
3.4341023 8.7085304 0.029999999
3.4341023 8.609005 0.029999999
3.4341023 8.5094786 0.029999999
3.4341023 8.4099522 0.029999999
3.4341023 8.3104267 0.029999999
3.4341023 8.2109003 0.029999999
3.4341023 8.1113739 0.029999999
3.4341023 8.0118484 0.029999999
3.4341023 7.912322 0.029999999
3.4341023 7.8127961 0.029999999
3.4341023 7.7132702 0.029999999
3.4341023 7.6137438 0.029999999
3.4341023 7.5142179 0.029999999
3.4341023 7.4146919 0.029999999
3.4341023 7.3151655 0.029999999
3.4341023 7.2156396 0.029999999
3.4341023 7.1161137 0.029999999
3.4341023 7.0165873 0.029999999
3.4341023 6.9170618 0.029999999
3.4341023 6.8175354 0.029999999
3.4341023 6.718009 0.029999999
3.4341023 6.6184835 0.029999999
3.4341023 6.5189571 0.029999999
3.4341023 6.4194312 0.029999999
3.4341023 6.3199053 0.029999999
3.4341023 6.2203789 0.029999999
3.4341023 6.1208529 0.029999999
3.4341023 6.021327 0.029999999
3.4341023 5.9218006 0.029999999
3.4341023 5.8222747 0.029999999
3.4341023 5.7227488 0.029999999
3.4341023 5.6232224 0.029999999
3.4341023 5.5236964 0.029999999
3.4341023 5.4241705 0.029999999
3.4341023 5.3246446 0.029999999
3.4341023 5.2251182 0.029999999
3.4341023 5.1255922 0.029999999
3.4341023 5.0260663 0.029999999
3.4341023 4.9265399 0.029999999
3.4341023 4.827014 0.029999999
3.4341023 4.727488 0.029999999
3.4341023 4.6279616 0.029999999
3.4341023 4.5284357 0.029999999
3.4341023 4.4289098 0.029999999
3.4341023 4.3293839 0.029999999
3.4341023 4.2298574 0.029999999
3.4341023 4.1303315 0.029999999
3.4341023 4.0308056 0.029999999
3.4341023 3.9312792 0.029999999
3.4341023 3.8317533 0.029999999
3.4341023 3.7322273 0.029999999
3.4341023 3.6327014 0.029999999
3.4341023 3.533175 0.029999999
3.4341023 3.533175 0.12962499
3.4341023 3.533175 0.22925
3.4341023 3.533175 0.32887501
3.4341023 3.533175 0.4285
3.4341023 3.533175 0.52812499
3.4341023 3.533175 1.325125
3.4341023 3.533175 1.42475
3.4341023 3.533175 1.524375
3.4341023 3.533175 1.624
3.4341023 3.533175 1.7236249
3.4341023 3.533175 1.8232499
3.4341023 3.533175 1.9228749
3.4341023 3.533175 2.0225
3.4341023 3.533175 2.1221249
3.4341023 3.533175 2.22175
3.4341023 3.533175 2.3213749
3.4341023 3.533175 2.421
3.4341023 3.533175 2.5206249
3.4341023 3.4336491 0.029999999
3.4341023 3.4336491 0.12962499
3.4341023 3.4336491 0.22925
3.4341023 3.4336491 0.32887501
3.4341023 3.4336491 0.4285
3.4341023 3.4336491 0.52812499
3.4341023 3.4336491 1.325125
3.4341023 3.4336491 1.42475
3.4341023 3.4336491 1.524375
3.4341023 3.4336491 1.624
3.4341023 3.4336491 1.7236249
3.4341023 3.4336491 1.8232499
3.4341023 3.4336491 1.9228749
3.4341023 3.4336491 2.0225
3.4341023 3.4336491 2.1221249
3.4341023 3.4336491 2.22175
3.4341023 3.4336491 2.3213749
3.4341023 3.4336491 2.421
3.4341023 3.4336491 2.5206249
3.4341023 3.3341231 0.029999999
3.4341023 3.2345967 0.029999999
3.4341023 3.1350708 0.029999999
3.4341023 3.0355449 0.029999999
3.4341023 2.9360185 0.029999999
3.4341023 2.8364925 0.029999999
3.4341023 2.7369666 0.029999999
3.4341023 2.6374407 0.029999999
3.4341023 2.5379143 0.029999999
3.4341023 2.4383879 0.029999999
3.4341023 2.3388624 0.029999999
3.4341023 2.239336 0.029999999
3.4341023 2.1398106 0.029999999
3.4341023 2.0402842 0.029999999
3.4341023 1.9407578 0.029999999
3.4341023 1.8412323 0.029999999
3.4341023 1.7417059 0.029999999
3.4341023 1.6421795 0.029999999
3.4341023 1.542654 0.029999999
3.4341023 1.4431276 0.029999999
3.4341023 1.3436012 0.029999999
3.4341023 1.2440758 0.029999999
3.4341023 1.1445494 0.029999999
3.4341023 1.045023 0.029999999
3.4341023 0.94549751 0.029999999
3.4341023 0.84597111 0.029999999
3.4341023 0.7464447 0.029999999
3.4341023 0.64691925 0.029999999
3.4341023 0.54739285 0.029999999
3.4341023 0.44786739 0.029999999
3.4341023 0.34834099 0.029999999
3.4341023 0.24881458 0.029999999
3.4341023 0.14928913 0.029999999
3.4341023 0.049762726 0.029999999
3.4341023 -0.04976368 0.029999999
3.4341023 -0.14928913 0.029999999
3.4341023 -0.14928913 0.12962499
3.4341023 -0.14928913 0.22925
3.4341023 -0.14928913 0.32887501
3.4341023 -0.14928913 0.4285
3.4341023 -0.14928913 0.52812499
3.4341023 -0.14928913 0.62774998
3.4341023 -0.14928913 0.72737497
3.4341023 -0.14928913 0.82699996
3.4341023 -0.14928913 0.92662495
3.4341023 -0.14928913 1.02625
3.4341023 -0.14928913 1.125875
3.4341023 -0.14928913 1.2255
3.4341023 -0.14928913 1.325125
3.4341023 -0.14928913 1.42475
3.4341023 -0.14928913 1.524375
3.4341023 -0.14928913 1.624
3.4341023 -0.14928913 1.7236249
3.4341023 -0.14928913 1.8232499
3.4341023 -0.14928913 1.9228749
3.4341023 -0.14928913 2.0225
3.4341023 -0.14928913 2.1221249
3.4341023 -0.14928913 2.22175
3.4341023 -0.14928913 2.3213749
3.4341023 -0.14928913 2.421
3.4341023 -0.14928913 2.5206249
3.4341023 -0.14928913 2.62025
3.4341023 -0.14928913 2.7198749
3.4341023 -0.14928913 2.8195
3.4341023 -0.14928913 2.9191248
3.4341023 -0.14928913 3.01875
3.4341023 -0.24881554 0.029999999
3.4341023 -0.24881554 3.01875
3.4341023 -0.34834194 0.029999999
3.4341023 -0.34834194 3.01875
3.4341023 -0.44786739 0.029999999
3.4341023 -0.44786739 3.01875
3.4341023 -0.5473938 0.029999999
3.4341023 -0.5473938 3.01875
3.4341023 -0.6469202 0.029999999
3.4341023 -0.6469202 3.01875
3.4341023 -0.74644566 0.029999999
3.4341023 -0.74644566 3.01875
3.4341023 -0.84597206 0.029999999
3.4341023 -0.84597206 3.01875
3.4341023 -0.94549847 0.029999999
3.4341023 -0.94549847 3.01875
3.4341023 -1.0450239 0.029999999
3.4341023 -1.0450239 0.12962499
3.4341023 -1.0450239 0.22925
3.4341023 -1.0450239 0.32887501
3.4341023 -1.0450239 0.4285
3.4341023 -1.0450239 0.52812499
3.4341023 -1.0450239 0.62774998
3.4341023 -1.0450239 0.72737497
3.4341023 -1.0450239 0.82699996
3.4341023 -1.0450239 0.92662495
3.4341023 -1.0450239 1.02625
3.4341023 -1.0450239 1.125875
3.4341023 -1.0450239 1.2255
3.4341023 -1.0450239 1.325125
3.4341023 -1.0450239 1.42475
3.4341023 -1.0450239 1.524375
3.4341023 -1.0450239 1.624
3.4341023 -1.0450239 1.7236249
3.4341023 -1.0450239 1.8232499
3.4341023 -1.0450239 1.9228749
3.4341023 -1.0450239 2.0225
3.4341023 -1.0450239 2.1221249
3.4341023 -1.0450239 2.22175
3.4341023 -1.0450239 2.3213749
3.4341023 -1.0450239 2.421
3.4341023 -1.0450239 2.5206249
3.4341023 -1.0450239 2.62025
3.4341023 -1.0450239 2.7198749
3.4341023 -1.0450239 2.8195
3.4341023 -1.0450239 2.9191248
3.4341023 -1.0450239 3.01875
3.4341023 -1.1445503 0.029999999
3.4341023 -1.1445503 0.12962499
3.4341023 -1.1445503 0.22925
3.4341023 -1.1445503 0.32887501
3.4341023 -1.1445503 0.4285
3.4341023 -1.1445503 0.52812499
3.4341023 -1.1445503 0.62774998
3.4341023 -1.1445503 0.72737497
3.4341023 -1.1445503 0.82699996
3.4341023 -1.1445503 0.92662495
3.4341023 -1.1445503 1.02625
3.4341023 -1.1445503 1.125875
3.4341023 -1.1445503 1.2255
3.4341023 -1.1445503 1.325125
3.4341023 -1.1445503 1.42475
3.4341023 -1.1445503 1.524375
3.4341023 -1.1445503 1.624
3.4341023 -1.1445503 1.7236249
3.4341023 -1.1445503 1.8232499
3.4341023 -1.1445503 1.9228749
3.4341023 -1.1445503 2.0225
3.4341023 -1.1445503 2.1221249
3.4341023 -1.1445503 2.22175
3.4341023 -1.1445503 2.3213749
3.4341023 -1.1445503 2.421
3.4341023 -1.1445503 2.5206249
3.4341023 -1.1445503 2.62025
3.4341023 -1.1445503 2.7198749
3.4341023 -1.1445503 2.8195
3.4341023 -1.1445503 2.9191248
3.4341023 -1.1445503 3.01875
3.4341023 -1.2440767 0.029999999
3.4341023 -1.2440767 3.01875
3.4341023 -1.3436022 0.029999999
3.4341023 -1.3436022 3.01875
3.4341023 -1.4431286 0.029999999
3.4341023 -1.4431286 3.01875
3.4341023 -1.542654 0.029999999
3.4341023 -1.542654 3.01875
3.4341023 -1.6421804 0.029999999
3.4341023 -1.6421804 3.01875
3.4341023 -1.7417068 0.029999999
3.4341023 -1.7417068 3.01875
3.4341023 -1.8412323 0.029999999
3.4341023 -1.8412323 3.01875
3.4341023 -1.9407587 0.029999999
3.4341023 -1.9407587 3.01875
3.4341023 -2.0402851 0.029999999
3.4341023 -2.0402851 0.12962499
3.4341023 -2.0402851 0.22925
3.4341023 -2.0402851 0.32887501
3.4341023 -2.0402851 0.4285
3.4341023 -2.0402851 0.52812499
3.4341023 -2.0402851 0.62774998
3.4341023 -2.0402851 0.72737497
3.4341023 -2.0402851 0.82699996
3.4341023 -2.0402851 0.92662495
3.4341023 -2.0402851 1.02625
3.4341023 -2.0402851 1.125875
3.4341023 -2.0402851 1.2255
3.4341023 -2.0402851 1.325125
3.4341023 -2.0402851 1.42475
3.4341023 -2.0402851 1.524375
3.4341023 -2.0402851 1.624
3.4341023 -2.0402851 1.7236249
3.4341023 -2.0402851 1.8232499
3.4341023 -2.0402851 1.9228749
3.4341023 -2.0402851 2.0225
3.4341023 -2.0402851 2.1221249
3.4341023 -2.0402851 2.22175
3.4341023 -2.0402851 2.3213749
3.4341023 -2.0402851 2.421
3.4341023 -2.0402851 2.5206249
3.4341023 -2.0402851 2.62025
3.4341023 -2.0402851 2.7198749
3.4341023 -2.0402851 2.8195
3.4341023 -2.0402851 2.9191248
3.4341023 -2.1398106 0.029999999
3.4341023 -2.239337 0.029999999
3.4341023 -2.3388634 0.029999999
3.4341023 -2.4383888 0.029999999
3.4341023 -2.5379152 0.029999999
3.4341023 -2.6374416 0.029999999
3.4341023 -2.7369671 0.029999999
3.4341023 -2.8364935 0.029999999
3.4341023 -2.9360199 0.029999999
3.4341023 -3.0355453 0.029999999
3.4341023 -3.1350718 0.029999999
3.4341023 -3.2345972 0.029999999
3.4341023 -3.3341236 0.029999999
3.4341023 -3.43365 0.029999999
3.4341023 -3.5331755 0.029999999
3.4341023 -3.6327019 0.029999999
3.4341023 -3.7322283 0.029999999
3.4341023 -3.8317537 0.029999999
3.4341023 -3.8317537 0.12962499
3.4341023 -3.8317537 0.22925
3.4341023 -3.8317537 0.32887501
3.4341023 -3.8317537 0.4285
3.4341023 -3.8317537 0.52812499
3.4341023 -3.8317537 0.62774998
3.4341023 -3.8317537 0.72737497
3.4341023 -3.8317537 0.82699996
3.4341023 -3.8317537 0.92662495
3.4341023 -3.8317537 1.02625
3.4341023 -3.8317537 1.125875
3.4341023 -3.8317537 1.2255
3.4341023 -3.8317537 1.325125
3.4341023 -3.8317537 1.42475
3.4341023 -3.8317537 1.524375
3.4341023 -3.8317537 1.624
3.4341023 -3.8317537 1.7236249
3.4341023 -3.8317537 1.8232499
3.4341023 -3.8317537 1.9228749
3.4341023 -3.8317537 2.0225
3.4341023 -3.8317537 2.1221249
3.4341023 -3.8317537 2.22175
3.4341023 -3.8317537 2.3213749
3.4341023 -3.8317537 2.421
3.4341023 -3.8317537 2.5206249
3.4341023 -3.9312801 0.029999999
3.4341023 -3.9312801 0.12962499
3.4341023 -3.9312801 0.22925
3.4341023 -3.9312801 0.32887501
3.4341023 -3.9312801 0.4285
3.4341023 -3.9312801 0.52812499
3.4341023 -3.9312801 0.62774998
3.4341023 -3.9312801 0.72737497
3.4341023 -3.9312801 0.82699996
3.4341023 -3.9312801 0.92662495
3.4341023 -3.9312801 1.02625
3.4341023 -3.9312801 1.125875
3.4341023 -3.9312801 1.2255
3.4341023 -3.9312801 1.325125
3.4341023 -3.9312801 1.42475
3.4341023 -3.9312801 1.524375
3.4341023 -3.9312801 1.624
3.4341023 -3.9312801 1.7236249
3.4341023 -3.9312801 1.8232499
3.4341023 -3.9312801 1.9228749
3.4341023 -3.9312801 2.0225
3.4341023 -3.9312801 2.1221249
3.4341023 -3.9312801 2.22175
3.4341023 -3.9312801 2.3213749
3.4341023 -3.9312801 2.421
3.4341023 -3.9312801 2.5206249
3.4341023 -4.0308065 0.029999999
3.4341023 -4.130332 0.029999999
3.4341023 -4.2298584 0.029999999
3.4341023 -4.3293848 0.029999999
3.4341023 -4.4289103 0.029999999
3.4341023 -4.5284367 0.029999999
3.4341023 -4.6279631 0.029999999
3.4341023 -4.7274885 0.029999999
3.4341023 -4.8270149 0.029999999
3.4341023 -4.9265413 0.029999999
3.4341023 -5.0260668 0.029999999
3.4341023 -5.1255932 0.029999999
3.4341023 -5.2251186 0.029999999
3.4341023 -5.324645 0.029999999
3.4341023 -5.4241714 0.029999999
3.4341023 -5.5236969 0.029999999
3.4341023 -5.6232243 0.029999999
3.4341023 -5.7227497 0.029999999
3.4341023 -5.8222752 0.029999999
3.4341023 -5.9218006 0.029999999
3.4341023 -6.021328 0.029999999
3.4341023 -6.1208534 0.029999999
3.4341023 -6.2203789 0.029999999
3.4341023 -6.3199062 0.029999999
3.4341023 -6.4194317 0.029999999
3.4341023 -6.4194317 0.12962499
3.4341023 -6.4194317 0.22925
3.4341023 -6.4194317 0.32887501
3.4341023 -6.4194317 0.4285
3.4341023 -6.4194317 1.325125
3.4341023 -6.4194317 1.42475
3.4341023 -6.4194317 1.524375
3.4341023 -6.4194317 1.624
3.4341023 -6.4194317 1.7236249
3.4341023 -6.4194317 1.8232499
3.4341023 -6.4194317 1.9228749
3.4341023 -6.4194317 2.0225
3.4341023 -6.4194317 2.1221249
3.4341023 -6.4194317 2.22175
3.4341023 -6.4194317 2.3213749
3.4341023 -6.4194317 2.421
3.4341023 -6.5189571 0.029999999
3.4341023 -6.5189571 0.52812499
3.4341023 -6.5189571 1.325125
3.4341023 -6.5189571 2.5206249
3.4341023 -6.6184845 0.029999999
3.4341023 -6.6184845 0.12962499
3.4341023 -6.6184845 0.22925
3.4341023 -6.6184845 0.32887501
3.4341023 -6.6184845 0.4285
3.4341023 -6.6184845 1.325125
3.4341023 -6.6184845 1.42475
3.4341023 -6.6184845 1.524375
3.4341023 -6.6184845 1.624
3.4341023 -6.6184845 1.7236249
3.4341023 -6.6184845 1.8232499
3.4341023 -6.6184845 1.9228749
3.4341023 -6.6184845 2.0225
3.4341023 -6.6184845 2.1221249
3.4341023 -6.6184845 2.22175
3.4341023 -6.6184845 2.3213749
3.4341023 -6.6184845 2.421
3.4341023 -6.7180099 0.029999999
3.4341023 -6.8175354 0.029999999
3.4341023 -6.9170628 0.029999999
3.4341023 -7.0165882 0.029999999
3.4341023 -7.1161137 0.029999999
3.4341023 -7.215641 0.029999999
3.4341023 -7.3151665 0.029999999
3.4341023 -7.4146919 0.029999999
3.4341023 -7.5142193 0.029999999
3.4341023 -7.6137447 0.029999999
3.4341023 -7.7132702 0.029999999
3.4341023 -7.8127975 0.029999999
3.4341023 -7.912323 0.029999999
3.4341023 -8.0118484 0.029999999
3.4341023 -8.1113758 0.029999999
3.4341023 -8.2109013 0.029999999
3.4341023 -8.3104267 0.029999999
3.4341023 -8.4099541 0.029999999
3.4341023 -8.5094795 0.029999999
3.4341023 -8.609005 0.029999999
3.4341023 -8.7085323 0.029999999
3.4341023 -8.8080578 0.029999999
3.4341023 -8.9075832 0.029999999
3.4341023 -9.0071106 0.029999999
3.4341023 -9.106636 0.029999999
3.4341023 -9.2061615 0.029999999
3.4341023 -9.3056889 0.029999999
3.4341023 -9.4052143 0.029999999
3.4341023 -9.5047398 0.029999999
3.4341023 -9.6042652 0.029999999
3.4341023 -9.7037926 0.029999999
3.4341023 -9.803318 0.029999999
3.4341023 -9.9028435 0.029999999
3.4341023 -10.002371 0.029999999
3.4341023 -10.101896 0.029999999
3.4341023 -10.201422 0.029999999
3.4341023 -10.300949 0.029999999
3.4341023 -10.400475 0.029999999
3.5336411 10.5 0.029999999
3.5336411 10.400474 0.029999999
3.5336411 10.300948 0.029999999
3.5336411 10.201422 0.029999999
3.5336411 10.101895 0.029999999
3.5336411 10.00237 0.029999999
3.5336411 9.9028435 0.029999999
3.5336411 9.8033171 0.029999999
3.5336411 9.7037916 0.029999999
3.5336411 9.6042652 0.029999999
3.5336411 9.5047398 0.029999999
3.5336411 9.4052134 0.029999999
3.5336411 9.305687 0.029999999
3.5336411 9.2061615 0.029999999
3.5336411 9.1066351 0.029999999
3.5336411 9.0071087 0.029999999
3.5336411 8.9075832 0.029999999
3.5336411 8.8080568 0.029999999
3.5336411 8.7085304 0.029999999
3.5336411 8.609005 0.029999999
3.5336411 8.5094786 0.029999999
3.5336411 8.4099522 0.029999999
3.5336411 8.3104267 0.029999999
3.5336411 8.2109003 0.029999999
3.5336411 8.1113739 0.029999999
3.5336411 8.0118484 0.029999999
3.5336411 7.912322 0.029999999
3.5336411 7.8127961 0.029999999
3.5336411 7.7132702 0.029999999
3.5336411 7.6137438 0.029999999
3.5336411 7.5142179 0.029999999
3.5336411 7.4146919 0.029999999
3.5336411 7.3151655 0.029999999
3.5336411 7.2156396 0.029999999
3.5336411 7.1161137 0.029999999
3.5336411 7.0165873 0.029999999
3.5336411 6.9170618 0.029999999
3.5336411 6.8175354 0.029999999
3.5336411 6.718009 0.029999999
3.5336411 6.6184835 0.029999999
3.5336411 6.5189571 0.029999999
3.5336411 6.4194312 0.029999999
3.5336411 6.3199053 0.029999999
3.5336411 6.2203789 0.029999999
3.5336411 6.1208529 0.029999999
3.5336411 6.021327 0.029999999
3.5336411 5.9218006 0.029999999
3.5336411 5.8222747 0.029999999
3.5336411 5.7227488 0.029999999
3.5336411 5.6232224 0.029999999
3.5336411 5.5236964 0.029999999
3.5336411 5.4241705 0.029999999
3.5336411 5.3246446 0.029999999
3.5336411 5.2251182 0.029999999
3.5336411 5.1255922 0.029999999
3.5336411 5.0260663 0.029999999
3.5336411 4.9265399 0.029999999
3.5336411 4.827014 0.029999999
3.5336411 4.727488 0.029999999
3.5336411 4.6279616 0.029999999
3.5336411 4.5284357 0.029999999
3.5336411 4.4289098 0.029999999
3.5336411 4.3293839 0.029999999
3.5336411 4.2298574 0.029999999
3.5336411 4.1303315 0.029999999
3.5336411 4.0308056 0.029999999
3.5336411 3.9312792 0.029999999
3.5336411 3.8317533 0.029999999
3.5336411 3.7322273 0.029999999
3.5336411 3.6327014 0.029999999
3.5336411 3.533175 0.029999999
3.5336411 3.533175 0.12962499
3.5336411 3.533175 0.22925
3.5336411 3.533175 0.32887501
3.5336411 3.533175 0.4285
3.5336411 3.533175 0.52812499
3.5336411 3.533175 1.325125
3.5336411 3.533175 1.42475
3.5336411 3.533175 1.524375
3.5336411 3.533175 1.624
3.5336411 3.533175 1.7236249
3.5336411 3.533175 1.8232499
3.5336411 3.533175 1.9228749
3.5336411 3.533175 2.0225
3.5336411 3.533175 2.1221249
3.5336411 3.533175 2.22175
3.5336411 3.533175 2.3213749
3.5336411 3.533175 2.421
3.5336411 3.533175 2.5206249
3.5336411 3.4336491 0.029999999
3.5336411 3.4336491 0.12962499
3.5336411 3.4336491 0.22925
3.5336411 3.4336491 0.32887501
3.5336411 3.4336491 0.4285
3.5336411 3.4336491 0.52812499
3.5336411 3.4336491 1.325125
3.5336411 3.4336491 1.42475
3.5336411 3.4336491 1.524375
3.5336411 3.4336491 1.624
3.5336411 3.4336491 1.7236249
3.5336411 3.4336491 1.8232499
3.5336411 3.4336491 1.9228749
3.5336411 3.4336491 2.0225
3.5336411 3.4336491 2.1221249
3.5336411 3.4336491 2.22175
3.5336411 3.4336491 2.3213749
3.5336411 3.4336491 2.421
3.5336411 3.4336491 2.5206249
3.5336411 3.3341231 0.029999999
3.5336411 3.2345967 0.029999999
3.5336411 3.1350708 0.029999999
3.5336411 3.0355449 0.029999999
3.5336411 2.9360185 0.029999999
3.5336411 2.8364925 0.029999999
3.5336411 2.7369666 0.029999999
3.5336411 2.6374407 0.029999999
3.5336411 2.5379143 0.029999999
3.5336411 2.4383879 0.029999999
3.5336411 2.3388624 0.029999999
3.5336411 2.239336 0.029999999
3.5336411 2.1398106 0.029999999
3.5336411 2.0402842 0.029999999
3.5336411 1.9407578 0.029999999
3.5336411 1.8412323 0.029999999
3.5336411 1.7417059 0.029999999
3.5336411 1.6421795 0.029999999
3.5336411 1.542654 0.029999999
3.5336411 1.4431276 0.029999999
3.5336411 1.3436012 0.029999999
3.5336411 1.2440758 0.029999999
3.5336411 1.1445494 0.029999999
3.5336411 1.045023 0.029999999
3.5336411 0.94549751 0.029999999
3.5336411 0.84597111 0.029999999
3.5336411 0.7464447 0.029999999
3.5336411 0.64691925 0.029999999
3.5336411 0.54739285 0.029999999
3.5336411 0.44786739 0.029999999
3.5336411 0.34834099 0.029999999
3.5336411 0.24881458 0.029999999
3.5336411 0.14928913 0.029999999
3.5336411 0.049762726 0.029999999
3.5336411 -0.04976368 0.029999999
3.5336411 -0.14928913 0.029999999
3.5336411 -0.14928913 0.12962499
3.5336411 -0.14928913 0.22925
3.5336411 -0.14928913 0.32887501
3.5336411 -0.14928913 0.4285
3.5336411 -0.14928913 0.52812499
3.5336411 -0.14928913 0.62774998
3.5336411 -0.14928913 0.72737497
3.5336411 -0.14928913 0.82699996
3.5336411 -0.14928913 0.92662495
3.5336411 -0.14928913 1.02625
3.5336411 -0.14928913 1.125875
3.5336411 -0.14928913 1.2255
3.5336411 -0.14928913 1.325125
3.5336411 -0.14928913 1.42475
3.5336411 -0.14928913 1.524375
3.5336411 -0.14928913 1.624
3.5336411 -0.14928913 1.7236249
3.5336411 -0.14928913 1.8232499
3.5336411 -0.14928913 1.9228749
3.5336411 -0.14928913 2.0225
3.5336411 -0.14928913 2.1221249
3.5336411 -0.14928913 2.22175
3.5336411 -0.14928913 2.3213749
3.5336411 -0.14928913 2.421
3.5336411 -0.14928913 2.5206249
3.5336411 -0.14928913 2.62025
3.5336411 -0.14928913 2.7198749
3.5336411 -0.14928913 2.8195
3.5336411 -0.14928913 2.9191248
3.5336411 -0.14928913 3.01875
3.5336411 -0.24881554 0.029999999
3.5336411 -0.24881554 3.01875
3.5336411 -0.34834194 0.029999999
3.5336411 -0.34834194 3.01875
3.5336411 -0.44786739 0.029999999
3.5336411 -0.44786739 3.01875
3.5336411 -0.5473938 0.029999999
3.5336411 -0.5473938 3.01875
3.5336411 -0.6469202 0.029999999
3.5336411 -0.6469202 3.01875
3.5336411 -0.74644566 0.029999999
3.5336411 -0.74644566 3.01875
3.5336411 -0.84597206 0.029999999
3.5336411 -0.84597206 3.01875
3.5336411 -0.94549847 0.029999999
3.5336411 -0.94549847 3.01875
3.5336411 -1.0450239 0.029999999
3.5336411 -1.0450239 0.12962499
3.5336411 -1.0450239 0.22925
3.5336411 -1.0450239 0.32887501
3.5336411 -1.0450239 0.4285
3.5336411 -1.0450239 0.52812499
3.5336411 -1.0450239 0.62774998
3.5336411 -1.0450239 0.72737497
3.5336411 -1.0450239 0.82699996
3.5336411 -1.0450239 0.92662495
3.5336411 -1.0450239 1.02625
3.5336411 -1.0450239 1.125875
3.5336411 -1.0450239 1.2255
3.5336411 -1.0450239 1.325125
3.5336411 -1.0450239 1.42475
3.5336411 -1.0450239 1.524375
3.5336411 -1.0450239 1.624
3.5336411 -1.0450239 1.7236249
3.5336411 -1.0450239 1.8232499
3.5336411 -1.0450239 1.9228749
3.5336411 -1.0450239 2.0225
3.5336411 -1.0450239 2.1221249
3.5336411 -1.0450239 2.22175
3.5336411 -1.0450239 2.3213749
3.5336411 -1.0450239 2.421
3.5336411 -1.0450239 2.5206249
3.5336411 -1.0450239 2.62025
3.5336411 -1.0450239 2.7198749
3.5336411 -1.0450239 2.8195
3.5336411 -1.0450239 2.9191248
3.5336411 -1.0450239 3.01875
3.5336411 -1.1445503 0.029999999
3.5336411 -1.1445503 0.12962499
3.5336411 -1.1445503 0.22925
3.5336411 -1.1445503 0.32887501
3.5336411 -1.1445503 0.4285
3.5336411 -1.1445503 0.52812499
3.5336411 -1.1445503 0.62774998
3.5336411 -1.1445503 0.72737497
3.5336411 -1.1445503 0.82699996
3.5336411 -1.1445503 0.92662495
3.5336411 -1.1445503 1.02625
3.5336411 -1.1445503 1.125875
3.5336411 -1.1445503 1.2255
3.5336411 -1.1445503 1.325125
3.5336411 -1.1445503 1.42475
3.5336411 -1.1445503 1.524375
3.5336411 -1.1445503 1.624
3.5336411 -1.1445503 1.7236249
3.5336411 -1.1445503 1.8232499
3.5336411 -1.1445503 1.9228749
3.5336411 -1.1445503 2.0225
3.5336411 -1.1445503 2.1221249
3.5336411 -1.1445503 2.22175
3.5336411 -1.1445503 2.3213749
3.5336411 -1.1445503 2.421
3.5336411 -1.1445503 2.5206249
3.5336411 -1.1445503 2.62025
3.5336411 -1.1445503 2.7198749
3.5336411 -1.1445503 2.8195
3.5336411 -1.1445503 2.9191248
3.5336411 -1.1445503 3.01875
3.5336411 -1.2440767 0.029999999
3.5336411 -1.2440767 3.01875
3.5336411 -1.3436022 0.029999999
3.5336411 -1.3436022 3.01875
3.5336411 -1.4431286 0.029999999
3.5336411 -1.4431286 3.01875
3.5336411 -1.542654 0.029999999
3.5336411 -1.542654 3.01875
3.5336411 -1.6421804 0.029999999
3.5336411 -1.6421804 3.01875
3.5336411 -1.7417068 0.029999999
3.5336411 -1.7417068 3.01875
3.5336411 -1.8412323 0.029999999
3.5336411 -1.8412323 3.01875
3.5336411 -1.9407587 0.029999999
3.5336411 -1.9407587 3.01875
3.5336411 -2.0402851 0.029999999
3.5336411 -2.0402851 0.12962499
3.5336411 -2.0402851 0.22925
3.5336411 -2.0402851 0.32887501
3.5336411 -2.0402851 0.4285
3.5336411 -2.0402851 0.52812499
3.5336411 -2.0402851 0.62774998
3.5336411 -2.0402851 0.72737497
3.5336411 -2.0402851 0.82699996
3.5336411 -2.0402851 0.92662495
3.5336411 -2.0402851 1.02625
3.5336411 -2.0402851 1.125875
3.5336411 -2.0402851 1.2255
3.5336411 -2.0402851 1.325125
3.5336411 -2.0402851 1.42475
3.5336411 -2.0402851 1.524375
3.5336411 -2.0402851 1.624
3.5336411 -2.0402851 1.7236249
3.5336411 -2.0402851 1.8232499
3.5336411 -2.0402851 1.9228749
3.5336411 -2.0402851 2.0225
3.5336411 -2.0402851 2.1221249
3.5336411 -2.0402851 2.22175
3.5336411 -2.0402851 2.3213749
3.5336411 -2.0402851 2.421
3.5336411 -2.0402851 2.5206249
3.5336411 -2.0402851 2.62025
3.5336411 -2.0402851 2.7198749
3.5336411 -2.0402851 2.8195
3.5336411 -2.0402851 2.9191248
3.5336411 -2.1398106 0.029999999
3.5336411 -2.239337 0.029999999
3.5336411 -2.3388634 0.029999999
3.5336411 -2.4383888 0.029999999
3.5336411 -2.5379152 0.029999999
3.5336411 -2.6374416 0.029999999
3.5336411 -2.7369671 0.029999999
3.5336411 -2.8364935 0.029999999
3.5336411 -2.9360199 0.029999999
3.5336411 -3.0355453 0.029999999
3.5336411 -3.1350718 0.029999999
3.5336411 -3.2345972 0.029999999
3.5336411 -3.3341236 0.029999999
3.5336411 -3.43365 0.029999999
3.5336411 -3.5331755 0.029999999
3.5336411 -3.6327019 0.029999999
3.5336411 -3.7322283 0.029999999
3.5336411 -3.8317537 0.029999999
3.5336411 -3.8317537 0.12962499
3.5336411 -3.8317537 0.22925
3.5336411 -3.8317537 0.32887501
3.5336411 -3.8317537 0.4285
3.5336411 -3.8317537 0.52812499
3.5336411 -3.8317537 0.62774998
3.5336411 -3.8317537 0.72737497
3.5336411 -3.8317537 0.82699996
3.5336411 -3.8317537 0.92662495
3.5336411 -3.8317537 1.02625
3.5336411 -3.8317537 1.125875
3.5336411 -3.8317537 1.2255
3.5336411 -3.8317537 1.325125
3.5336411 -3.8317537 1.42475
3.5336411 -3.8317537 1.524375
3.5336411 -3.8317537 1.624
3.5336411 -3.8317537 1.7236249
3.5336411 -3.8317537 1.8232499
3.5336411 -3.8317537 1.9228749
3.5336411 -3.8317537 2.0225
3.5336411 -3.8317537 2.1221249
3.5336411 -3.8317537 2.22175
3.5336411 -3.8317537 2.3213749
3.5336411 -3.8317537 2.421
3.5336411 -3.8317537 2.5206249
3.5336411 -3.9312801 0.029999999
3.5336411 -3.9312801 0.12962499
3.5336411 -3.9312801 0.22925
3.5336411 -3.9312801 0.32887501
3.5336411 -3.9312801 0.4285
3.5336411 -3.9312801 0.52812499
3.5336411 -3.9312801 0.62774998
3.5336411 -3.9312801 0.72737497
3.5336411 -3.9312801 0.82699996
3.5336411 -3.9312801 0.92662495
3.5336411 -3.9312801 1.02625
3.5336411 -3.9312801 1.125875
3.5336411 -3.9312801 1.2255
3.5336411 -3.9312801 1.325125
3.5336411 -3.9312801 1.42475
3.5336411 -3.9312801 1.524375
3.5336411 -3.9312801 1.624
3.5336411 -3.9312801 1.7236249
3.5336411 -3.9312801 1.8232499
3.5336411 -3.9312801 1.9228749
3.5336411 -3.9312801 2.0225
3.5336411 -3.9312801 2.1221249
3.5336411 -3.9312801 2.22175
3.5336411 -3.9312801 2.3213749
3.5336411 -3.9312801 2.421
3.5336411 -3.9312801 2.5206249
3.5336411 -4.0308065 0.029999999
3.5336411 -4.130332 0.029999999
3.5336411 -4.2298584 0.029999999
3.5336411 -4.3293848 0.029999999
3.5336411 -4.4289103 0.029999999
3.5336411 -4.5284367 0.029999999
